4.47408 7.13507 1.03377
4.46388 7.11328 0.734811
5.71054 9.09634 0.562517
3.87388 6.16832 0.127014
3.28184 5.21147 -0.756371
3.28155 5.209 -0.538687
3.29049 5.22117 -0.323232
3.27675 5.19735 -0.107138
4.46778 7.07279 1.32493
4.4751 7.08165 1.02828
4.47537 7.0766 0.732632
5.77163 9.12276 0.565394
3.84192 6.07027 0.12527
3.31597 5.22513 -0.760028
3.31039 5.21433 -0.54043
3.33011 5.24337 -0.325324
3.30828 5.20698 -0.107574
4.47653 7.03216 1.32023
4.47847 7.03249 1.02341
4.48934 7.04414 0.730888
5.82491 9.13624 0.567486
3.83889 6.01889 0.124486
3.34221 5.22606 -0.761857
3.33663 5.21533 -0.541738
3.3457 5.22751 -0.325062
3.33991 5.21645 -0.10801
4.48505 6.99155 1.31554
4.47886 6.97923 1.01793
4.50044 7.00747 0.728709
5.88106 9.15366 0.569839
3.85447 5.99704 0.124311
3.37656 5.23939 -0.765513
3.35481 5.20365 -0.541738
3.36393 5.2158 -0.325062
3.37165 5.22576 -0.108445
4.49334 6.95097 1.31085
4.48703 6.93855 1.01427
4.51134 6.97081 0.72653
5.93739 9.1708 0.572193
3.88353 5.99614 0.124573
3.39482 5.22758 -0.765513
3.14502 4.84105 -0.505128
3.39844 5.22914 -0.326631
3.40622 5.23911 -0.108968
4.5014 6.91041 1.30616
4.50309 6.91037 1.01245
4.52204 6.93416 0.724351
5.99665 9.19183 0.574808
3.9263 6.01604 0.12527
3.1237 4.7717 -0.499026
3.42761 5.23396 -0.327677
3.43271 5.23974 -0.10923
4.51195 6.87402 1.30225
4.51629 6.87802 1.01001
4.53255 6.89752 0.722172
6.05339 9.2084 0.577162
3.95826 6.019 0.125619
3.13893 4.76043 -0.700299
3.11565 4.72334 -0.495104
3.44862 5.22613 -0.327939
3.46475 5.24858 -0.109666
4.5223 6.83763 1.29833
4.52932 6.84565 1.00757
4.54009 6.85673 0.719557
6.11307 9.22884 0.579777
3.97372 5.99682 0.125445
3.16376 4.76185 -0.702127
3.12937 4.70829 -0.494668
3.48305 5.23645 -0.109666
4.53245 6.80125 1.29442
4.53942 6.80915 1.00453
4.55018 6.82013 0.717378
6.17019 9.24482 0.582131
3.95854 5.92886 0.124311
3.17761 4.74665 -0.701518
3.14855 4.70148 -0.495104
3.23211 4.82443 -0.304141
4.54357 6.7641 1.29051
4.55328 6.77599 1.00209
4.56006 6.78353 0.715198
6.23029 9.26466 0.584746
3.9262 5.83619 0.122655
3.19971 4.74376 -0.702736
3.16576 4.68991 -0.495104
3.25536 4.82083 -0.304664
3.2126 4.75571 -0.100077
4.55608 6.73184 1.28738
4.56299 6.73951 0.999044
4.56975 6.74695 0.713019
6.28942 9.27896 0.587099
3.90267 5.75556 0.12126
3.21428 4.7279 -0.702127
3.18212 4.67883 -0.495104
3.26656 4.80118 -0.304141
3.21793 4.72794 -0.099728
4.56286 6.69141 1.28269
4.5753 6.70714 0.996608
4.57924 6.71039 0.71084
6.34549 9.29517 0.589453
3.86916 5.66347 0.119604
3.22994 4.71721 -0.702127
3.19761 4.66825 -0.495104
3.272 4.77328 -0.303095
3.23724 4.7208 -0.0998151
4.57384 6.65996 1.27956
4.58463 6.67068 0.993562
4.58852 6.67384 0.708661
6.3977 9.30176 0.591284
3.87658 5.63414 0.119255
3.24639 4.70591 -0.702127
3.21389 4.65706 -0.495104
3.31334 4.79938 -0.305449
3.24719 4.70181 -0.0996408
4.57458 6.61147 1.27331
4.58978 6.63096 0.989907
4.59645 6.63812 0.706482
3.87059 5.58359 0.118471
3.26198 4.69512 -0.702127
3.22647 4.64228 -0.494668
3.32723 4.78369 -0.305187
3.2693 4.69865 -0.0998151
4.59648 6.59626 1.27331
4.60722 6.60676 0.988689
4.60819 6.60569 0.704739
3.84902 5.51334 0.11725
3.27632 4.67907 -0.701518
3.24346 4.63043 -0.494668
3.33244 4.75569 -0.304141
3.28568 4.68721 -0.0998151
4.59508 6.543 1.26627
4.59602 6.5419 0.981378
4.59513 6.53578 0.699073
4.58167 6.51421 0.417115
3.8692 5.49919 0.11725
3.29263 4.6676 -0.701518
3.25674 4.61501 -0.494232
3.34902 4.74403 -0.304141
3.30202 4.67571 -0.0998151
4.6179 6.52692 1.26627
4.6217 6.52987 0.981988
4.62943 6.53596 0.700816
4.59572 6.48596 0.416331
3.88548 5.48158 0.117163
3.30603 4.65203 -0.700908
3.27283 4.60361 -0.494232
3.34241 4.69975 -0.302049
3.32122 4.66823 -0.0999023
4.66175 6.53794 0.985643
4.66958 6.54409 0.703431
4.56611 6.39673 0.411623
3.89878 5.45985 0.116989
3.31936 4.63643 -0.700299
3.28597 4.58811 -0.493796
3.34135 4.66371 -0.30048
3.76269 5.24986 -0.11263
4.5476 6.32399 0.407962
3.9149 5.44214 0.116901
3.33262 4.62079 -0.699689
3.29906 4.57257 -0.493361
3.33423 4.61962 -0.298388
3.84538 5.32587 -0.114548
4.56965 6.30808 0.407962
3.9192 5.40821 0.116466
3.34873 4.60913 -0.699689
3.31207 4.557 -0.492925
3.3474 4.60392 -0.298126
3.90805 5.37305 -0.115855
4.57987 6.27596 0.406916
3.91153 5.35815 0.115681
3.36187 4.59341 -0.69908
3.32501 4.54139 -0.492489
3.34575 4.56803 -0.296557
3.9386 5.37551 -0.116204
4.59583 6.25189 0.406393
3.95686 5.38071 0.116466
3.37493 4.57765 -0.69847
3.33789 4.52575 -0.492053
3.44764 4.67285 -0.304141
3.96922 5.37782 -0.116553
4.00538 5.40704 0.117337
3.38793 4.56186 -0.697861
3.35367 4.51407 -0.492053
3.54137 4.76498 -0.31094
4.00885 5.39201 -0.117163
4.04217 5.41706 0.11786
3.40119 4.54812 -0.899449
3.40384 4.55 -0.697861
3.3694 4.50234 -0.492053
3.549 4.7406 -0.310156
4.04562 5.402 -0.117686
4.84602 6.45194 0.706046
4.08208 5.43089 0.118471
3.41705 4.53622 -0.899449
3.4197 4.53809 -0.697861
3.3881 4.49452 -0.492489
3.56854 4.73217 -0.310417
4.08252 5.41179 -0.118209
4.86551 6.43102 0.70561
4.86347 6.42599 0.422084
4.11912 5.44053 0.118994
3.46252 4.5617 -0.703346
3.47305 4.57391 -0.502513
3.59107 4.72764 -0.31094
4.11651 5.41741 -0.118645
4.90269 6.44037 1.28191
4.87383 6.40013 0.98747
4.86679 6.38626 0.702559
4.88587 6.40898 0.422084
4.15627 5.44997 0.119517
3.55981 4.65604 -0.719802
3.56161 4.65671 -0.512973
3.61665 4.72697 -0.311725
4.14147 5.41095 -0.118819
4.92214 6.41929 1.28113
4.89312 6.37914 0.986861
4.88905 6.36924 0.702559
4.9143 6.39981 0.422607
4.19354 5.45921 0.12004
3.59724 4.6711 -0.724069
3.58697 4.65609 -0.51428
3.63923 4.72223 -0.312248
4.1878 5.43209 -0.119604
4.95055 6.40989 1.28269
4.89412 6.33453 0.982597
4.95086 6.40336 0.708225
5.00992 6.4774 0.428883
4.23399 5.47222 0.12065
3.52075 4.53729 -0.502513
3.70774 4.77655 -0.316694
4.23434 5.45297 -0.120388
5.02748 6.46273 1.29677
4.85524 6.23908 0.970413
5.01603 6.44105 0.714327
5.03557 6.46381 0.429145
4.2715 5.48106 0.121173
3.87113 4.95482 -0.772218
3.54884 4.54067 -0.504256
3.85048 4.92485 -0.327416
4.28414 5.47754 -0.12126
5.05915 6.45681 1.29912
4.84944 6.18694 0.964931
5.09382 6.49405 0.722172
5.08892 6.48548 0.43176
4.31222 5.49365 0.121783
3.8884 4.94128 -0.772218
3.64169 4.6261 -0.515152
3.9109 4.9663 -0.331077
4.3218 5.48611 -0.121783
5.10919 6.474 1.30616
4.85563 6.1505 0.961885
5.11532 6.47713 0.722172
5.13516 6.49992 0.433852
4.34997 5.50209 0.122306
3.90785 4.93225 -0.772827
3.7127 4.68426 -0.522997
3.91891 4.94088 -0.330292
4.35957 5.49449 -0.122306
5.14292 6.47249 1.30928
4.86472 6.11798 0.959448
5.15651 6.48262 0.724787
5.17648 6.50539 0.435421
4.38999 5.51502 0.122916
3.92195 4.9147 -0.772218
3.84401 4.81531 -0.539123
3.93527 4.92786 -0.330292
4.37872 5.47924 -0.122306
5.20982 6.50756 1.32023
4.87363 6.08546 0.957012
5.21336 6.50734 0.729581
5.23975 6.53793 0.438821
4.42797 5.52306 0.123439
3.93597 4.89711 -0.771608
3.92407 4.87881 -0.547839
3.94704 4.90562 -0.329769
5.2418 6.50087 1.32258
4.87927 6.0491 0.953966
5.25794 6.51624 0.732632
5.29818 6.56142 0.441698
4.47018 5.53402 0.12405
3.95077 4.87879 -0.770999
3.94107 4.86508 -0.547839
3.961 4.88794 -0.329508
4.18075 5.15728 -0.115768
5.28314 6.50554 1.32727
4.89096 6.02048 0.952138
5.29436 6.51238 0.734375
5.3242 6.54676 0.441959
4.77025 5.86352 0.131808
3.96464 4.86113 -0.770389
3.96433 4.85902 -0.548711
3.97488 4.87021 -0.329246
4.14814 5.08069 -0.114373
5.27142 6.44501 1.31867
4.8711 5.95343 0.944219
4.80599 5.86759 0.39724
4.79069 5.84683 0.131808
3.97843 4.84342 -0.76978
3.9781 4.8413 -0.548275
3.98868 4.85245 -0.328985
4.1976 5.1048 -0.115245
4.76738 5.78947 1.4573
4.78208 5.80526 1.19118
4.77192 5.79086 0.92107
4.78195 5.79891 0.657669
4.81056 5.83152 0.395933
4.84289 5.86863 0.13268
3.98899 4.82186 -0.768561
3.9918 4.82355 -0.547839
4.00242 4.83465 -0.328723
4.24729 5.12861 -0.116117
4.7907 5.77657 1.45825
4.837 5.83034 1.19979
4.83014 5.81999 0.92838
4.85309 5.84349 0.664642
5.31908 6.40231 0.435944
4.87933 5.87092 0.133116
4.00262 4.80409 -0.767951
4.00224 4.80193 -0.546968
4.01607 4.81681 -0.328462
4.23634 5.07921 -0.115332
5.37345 6.43114 1.32727
4.92999 5.89829 0.94361
5.33364 6.3767 0.727402
5.3478 6.39136 0.436467
5.50625 6.57839 0.149592
4.01617 4.78629 -0.767342
4.01577 4.78412 -0.546532
4.02965 4.79894 -0.3282
4.23154 5.03759 -0.114722
4.83722 5.7505 1.46016
5.38951 6.40479 1.32571
4.95055 5.88105 0.94361
5.35586 6.35804 0.727402
5.34756 6.34593 0.434637
5.54851 6.58207 0.150115
4.02965 4.76845 -0.766732
4.02923 4.76626 -0.546096
4.04315 4.78103 -0.327939
4.21681 4.98462 -0.11385
4.94858 5.83723 0.939345
5.34596 6.30151 0.432806
4.04223 4.75128 -0.766123
4.04179 4.74908 -0.54566
4.05658 4.76309 -0.327677
4.2277 4.96226 -0.113676
5.69261 6.67226 1.38906
4.94959 5.79728 0.93569
5.68045 6.65095 0.765319
5.34198 6.25244 0.430714
4.05233 4.72961 -0.764904
4.0551 4.73117 -0.545224
4.0691 4.74582 -0.327416
4.24825 4.95127 -0.113763
5.73634 6.67383 1.39375
4.95685 5.76491 0.933254
5.72961 6.6613 0.768806
5.34097 6.20726 0.428883
4.58541 5.32727 0.122568
4.06557 4.71167 -0.764295
4.06916 4.7125 -0.544789
4.0832 4.7271 -0.327154
4.28512 4.95911 -0.114286
5.78546 6.68363 1.40001
4.96071 5.72882 0.930208
5.79197 6.68643 0.774036
5.36696 6.19142 0.429145
4.60163 5.30666 0.122481
4.07956 4.693 -0.763685
4.08231 4.69451 -0.544353
4.0964 4.70905 -0.326893
4.33522 4.98183 -0.115158
5.8477 6.70807 1.4094
4.96763 5.6965 0.927771
5.84591 6.69893 0.777958
5.38854 6.17264 0.429145
4.62671 5.29809 0.122655
4.09265 4.67499 -0.763076
4.10196 4.68398 -0.544789
4.10952 4.69097 -0.326631
4.31634 4.92531 -0.114199
5.89062 6.70988 1.41409
4.97111 5.66048 0.924725
5.93502 6.75331 0.786675
5.38368 6.1238 0.427053
4.63527 5.27064 0.122393
4.10566 4.65696 -0.762466
4.1084 4.65842 -0.543481
4.12257 4.67285 -0.32637
4.37982 4.96269 -0.115419
5.94018 6.71888 1.42035
4.98755 5.63938 0.924116
5.99817 6.77732 0.791905
5.40171 6.10123 0.426791
4.65695 5.25818 0.122481
4.15813 4.68342 -0.76917
4.17094 4.69619 -0.549583
4.17534 4.69949 -0.329246
4.35726 4.90253 -0.114373
5.99644 6.73498 1.42817
4.9841 5.59599 0.919852
6.02842 6.76378 0.792776
5.40636 6.0637 0.425484
4.67528 5.24189 0.122481
4.234 4.73547 -0.780141
4.22051 4.71873 -0.553941
4.235 4.73326 -0.332646
4.5944 5.13314 -0.120127
6.06606 6.76549 1.43912
5.0036 5.57856 0.919852
4.69689 5.22926 0.122568
4.29035 4.76491 -0.787455
4.3303 4.8076 -0.566144
4.30831 4.78151 -0.337092
4.72944 5.24704 -0.123178
6.06979 6.72228 1.43442
4.64484 5.13694 0.36272
4.68493 5.17946 0.121783
4.38363 4.83447 -0.801473
4.41733 4.86993 -0.575297
4.45583 4.91066 -0.347291
4.68388 5.16017 -0.121522
4.68511 5.15068 0.85467
4.64041 5.09796 0.60319
4.65602 5.11331 0.362197
4.67605 5.13351 0.121086
4.49752 4.92542 -0.819148
4.51493 4.94274 -0.585757
4.54705 4.97617 -0.353044
4.67826 5.11796 -0.120911
4.6529 5.0831 1.33903
4.65913 5.08811 1.09263
4.65613 5.08306 0.846142
4.64135 5.06337 0.601011
4.66709 5.08967 0.361674
4.67367 5.09505 0.120563
4.75319 5.16905 -0.862422
4.68594 5.09056 -0.12065
4.64733 5.04156 1.33236
4.65677 5.05004 1.08794
4.65702 5.04854 0.843096
4.66237 5.0508 0.601447
4.66789 5.055 0.360367
4.67107 5.05667 0.12004
4.84538 5.23253 -0.87583
6.81383 7.35569 -0.877328
6.42114 6.92934 -0.494785
4.70708 5.07784 -0.120737
4.65823 5.01811 1.33045
4.66765 5.02651 1.08638
4.67124 5.02861 0.842487
4.69015 5.04543 0.602754
4.70251 5.05696 0.361674
4.70572 5.05864 0.120476
4.96177 5.32085 -0.893505
6.84626 7.33915 -0.878199
6.08759 6.52358 -0.467326
4.74183 5.07965 -0.121173
4.68242 5.00899 1.33236
4.69866 5.02462 1.08951
4.69894 5.02315 0.844314
4.72475 5.04721 0.604933
4.73378 5.05509 0.36272
4.73702 5.05678 0.120824
4.98031 5.30349 -0.893505
6.85819 7.30068 -0.876456
5.99407 6.37857 -0.458434
4.72006 5.01406 1.33808
4.72972 5.02257 1.09263
4.74366 5.03562 0.849188
4.75259 5.04157 0.606241
4.76168 5.04944 0.363505
4.74435 5.0293 0.120563
4.92378 5.20675 -0.880097
6.88022 7.27308 -0.87602
6.006 6.34673 -0.45765
5.08305 5.36954 -0.128932
4.76792 5.02961 1.34666
4.76761 5.02752 1.09733
4.77829 5.03703 0.852234
4.79074 5.04662 0.608856
4.79646 5.05089 0.364812
4.76187 5.01271 0.120563
4.93166 5.17875 -0.878268
6.89182 7.2346 -0.874277
6.02123 6.3185 -0.457127
5.10521 5.35539 -0.129019
4.80918 5.03779 1.35334
4.73787 4.95271 0.119517
4.90505 5.11494 -0.870345
6.92738 7.22128 -0.875584
5.99831 6.25061 -0.453727
5.10657 5.3195 -0.128583
6.35325 6.60662 1.45163
5.05762 5.25748 0.895485
6.68779 6.94722 0.843769
5.46197 5.67186 0.412408
4.72739 4.90733 0.118819
4.90564 5.07994 -0.867298
4.98686 5.16225 -0.628032
5.77373 5.9747 -0.43516
5.09383 5.26929 -0.127798
6.34879 6.55602 1.44537
5.08285 5.24692 0.896703
6.73627 6.94887 0.846819
5.46783 5.63843 0.411362
4.7236 4.86927 0.118296
4.9095 5.04855 -0.86486
4.98749 5.12696 -0.625853
4.95527 5.09028 -0.123875
4.98843 5.11719 1.38863
4.9787 5.10543 1.12939
4.97984 5.10481 0.875382
4.96163 5.0826 0.621495
4.99908 5.11917 0.37475
4.73708 4.84918 0.118209
4.92709 5.03138 -0.86486
5.04021 5.1451 -0.630211
5.0185 5.11936 -0.125009
4.99939 5.09274 1.38672
5.01033 5.10211 1.13252
5.00111 5.09094 0.875991
5.02474 5.11143 0.627161
5.22698 5.3153 0.390441
4.78202 4.86113 0.118906
4.93766 5.00708 -0.863641
7.01703 7.11321 -0.874277
6.02888 6.10938 -0.449543
5.13468 5.20143 -0.12745
5.06544 5.12413 1.40007
5.141 5.19694 0.897313
6.98038 7.0514 0.868175
5.44577 5.49925 0.405347
4.80248 4.84795 0.118994
4.94811 4.98278 -0.862422
7.00671 7.05334 -0.869918
6.03257 6.07059 -0.448235
5.15633 5.18702 -0.127537
6.46758 6.49473 1.45163
5.16261 5.18248 0.897922
7.04011 7.06227 0.872533
5.55307 5.5686 0.411885
4.85115 4.86302 0.119778
4.95845 4.95846 -0.861203
7.01015 7.00771 -0.867303
6.05725 6.05303 -0.448497
6.48322 6.46514 1.45007
7.127 7.10217 0.880378
5.57858 5.55721 0.412408
4.85746 4.83547 0.119517
4.97135 4.93849 -0.860593
5.52772 5.48927 -0.681639
6.00746 5.9615 -0.443267
4.69909 4.66151 -0.115419
6.4941 6.43318 1.44772
5.40323 5.34881 0.933254
7.18361 7.10878 0.884301
5.6015 5.54121 0.412669
4.96736 4.90019 -0.856936
5.52912 5.45245 -0.67946
5.83162 5.74876 -0.428883
4.72164 4.65292 -0.115594
6.52004 6.41393 1.4485
5.44925 5.3587 0.938127
7.25812 7.13253 0.890402
5.62793 5.52862 0.413192
4.98089 4.87935 -0.856327
5.51609 5.40175 -0.675538
5.65541 5.53625 -0.4145
4.73785 4.63641 -0.115594
6.54592 6.39459 1.44929
5.47147 5.34311 0.938736
5.62932 5.49151 0.411885
4.8211 4.70143 0.117424
4.94809 4.81349 -0.847794
5.40618 5.25545 -0.394886
4.76476 4.6303 -0.115855
4.85185 4.69848 0.117773
4.89348 4.72723 -0.835604
4.88364 4.71608 -0.594037
4.91797 4.74757 -0.358013
4.79529 4.62752 -0.116204
4.88678 4.70759 1.07465
4.87949 4.69892 0.831522
4.85598 4.67301 0.589679
4.87947 4.69398 0.354613
4.88984 4.70231 0.118296
4.92427 4.72386 -0.838042
4.93243 4.73003 -0.59796
4.93812 4.73383 -0.358274
4.83668 4.63497 -0.116814
4.8617 4.65244 1.30756
4.88177 4.67002 1.06995
4.88151 4.66814 0.829085
4.86866 4.65259 0.589243
4.9211 4.70106 0.356444
4.93153 4.70938 0.118906
4.94433 4.71006 -0.838652
4.95252 4.71622 -0.598396
4.95823 4.72001 -0.358536
4.96509 4.72489 -0.119517
4.89214 4.64896 1.31138
4.93385 4.68696 1.07777
4.93017 4.68182 0.834568
4.92822 4.67671 0.594473
4.97733 4.72165 0.359321
4.99147 4.73342 0.119952
5.00039 4.73029 -0.845356
5.02547 4.75069 -0.362197
4.98519 4.71096 -0.119604
4.91548 4.6386 1.31328
4.9861 4.7036 1.0856
5.00064 4.71566 0.843705
4.99889 4.71072 0.601011
5.05556 4.76246 0.363766
5.048 4.75367 0.120911
5.08198 4.77397 -0.856327
5.58806 5.24754 -0.670744
6.14508 5.7686 -0.441436
5.26043 4.93642 -0.125793
4.95313 4.64155 1.31901
5.29599 4.95937 0.890612
5.02622 4.70345 0.602318
5.0841 4.74266 -0.853889
5.60635 5.228 -0.670744
6.15057 5.73349 -0.44039
5.27483 4.9137 -0.125706
6.69767 6.22822 1.4485
5.31777 4.94331 0.891221
5.63377 5.23339 0.402732
5.12247 4.74512 -0.857546
5.61816 5.20065 -0.669872
6.14222 5.68378 -0.438298
5.33599 4.93599 -0.126752
5.61716 5.18881 1.48591
6.71574 6.20145 1.44772
5.35323 4.94154 0.894267
5.65292 5.21271 0.402732
5.07994 4.68271 0.120476
5.13983 4.72631 -0.857546
5.58821 5.12604 1.47351
6.69367 6.13792 1.43834
5.05316 4.63037 0.599703
5.10051 4.65904 -0.848404
5.09434 4.65177 -0.603626
5.08261 4.63781 -0.360367
5.07115 4.62573 -0.119691
5.10029 4.64579 1.09263
5.07931 4.62344 0.843096
5.07298 4.61605 0.600139
5.10097 4.6399 0.361151
5.12649 4.66148 0.120824
5.01749 4.55118 -0.831947
5.10685 4.63062 -0.60319
5.10166 4.62429 -0.360628
5.09468 4.61471 -0.119865
5.11345 4.62684 1.33999
5.10996 4.62044 1.09107
5.08437 4.5957 0.841269
5.09645 4.605 0.601011
5.12455 4.62876 0.361674
5.15757 4.65696 0.121173
5.00754 4.51039 -0.827681
5.04235 4.53856 -0.593602
5.11115 4.59887 -0.360105
5.12934 4.61361 -0.120301
5.13037 4.60807 1.33999
5.13708 4.61248 1.09342
5.11885 4.5945 0.844314
5.13845 4.61046 0.604062
5.18609 4.64994 0.364812
5.20067 4.66138 0.121783
5.01664 4.48539 -0.826462
5.05073 4.51429 -0.59273
5.08622 4.54441 -0.357228
5.14541 4.59568 -0.120301
5.18672 4.62607 1.35048
5.17895 4.61752 1.09889
5.1682 4.60632 0.849797
5.16647 4.60154 0.605369
5.19856 4.6285 0.364551
5.21691 4.6432 0.121783
5.03226 4.46785 -0.826462
5.07018 4.49994 -0.593166
5.10205 4.52663 -0.357228
5.14646 4.56442 -0.119952
5.20651 4.61119 1.35143
5.19504 4.59942 1.09889
5.18053 4.58496 0.849188
5.19742 4.59668 0.607112
5.22217 4.61694 0.365074
5.23683 4.62827 0.12187
5.02921 4.43385 -0.823415
5.07465 4.47233 -0.591858
5.11407 4.50549 -0.356967
5.15486 4.53982 -0.119778
5.22995 4.59947 1.35334
6.09754 5.35304 0.424961
5.28301 4.63634 0.122568
5.03346 4.40646 -0.821586
5.07898 4.44475 -0.590551
5.12601 4.48432 -0.356705
5.15938 4.51193 -0.119517
6.91232 6.03425 1.4532
5.80694 5.06751 0.946046
6.12748 5.34157 0.425745
5.25394 4.57846 0.121522
5.03383 4.37584 -0.819148
5.08695 4.42046 -0.589679
5.13787 4.46313 -0.356444
5.16755 4.48733 -0.119342
5.8696 5.08621 0.953356
6.10456 5.2842 0.422868
5.25098 4.54374 0.121086
5.04156 4.35176 -0.817929
5.09103 4.39291 -0.588372
5.14585 4.43865 -0.355921
5.1794 4.46601 -0.119255
7.15265 6.1566 1.49465
5.92494 5.09806 0.959448
6.03587 5.188 0.416854
5.24785 4.50909 0.12065
5.04541 4.32444 -0.816101
5.09877 4.36863 -0.5875
5.15752 4.41741 -0.355659
5.18736 4.4414 -0.119081
5.98043 5.10958 0.96554
6.05015 5.16366 0.416592
5.24454 4.47452 0.120214
5.05292 4.30037 -0.814882
5.1064 4.34435 -0.586628
5.16911 4.39614 -0.355398
5.19903 4.42002 -0.118994
6.04364 5.1272 0.97285
6.00338 5.08763 0.412146
5.24869 4.44649 0.119952
5.06032 4.2763 -0.813663
5.11393 4.32007 -0.585757
5.17679 4.37163 -0.354875
5.20678 4.3954 -0.118819
6.12603 5.16042 0.983206
6.10515 5.13737 0.4179
5.2527 4.41849 0.119691
5.06761 4.25223 -0.812444
5.12516 4.299 -0.585321
5.18819 4.35033 -0.354613
5.21443 4.37078 -0.118645
7.25685 6.07197 1.49856
6.16304 5.15493 0.986252
6.1537 5.14164 0.419992
5.25658 4.39051 0.119429
5.0748 4.22816 -0.811225
5.13248 4.2747 -0.584449
5.19567 4.3258 -0.35409
5.22197 4.34615 -0.118471
7.2704 6.04029 1.497
6.22541 5.16476 0.423653
5.26418 4.36575 0.119255
5.08188 4.2041 -0.810006
5.13969 4.25041 -0.583578
5.20304 4.30127 -0.353567
5.2294 4.32153 -0.118296
7.28002 6.00545 1.49465
6.30506 5.1938 0.427837
5.27167 4.34099 0.119081
5.08502 4.17688 -0.808177
5.14295 4.22296 -0.58227
5.20645 4.27358 -0.352783
5.23672 4.2969 -0.118122
7.29329 5.97374 1.49308
6.38113 5.21918 0.43176
5.27905 4.31624 0.118906
5.09188 4.15283 -0.806958
5.14994 4.19869 -0.581398
5.21359 4.24907 -0.35226
5.24394 4.27228 -0.117947
7.30261 5.9389 1.49074
6.45745 5.24409 0.435683
5.28632 4.29148 0.118732
5.09863 4.12879 -0.80574
5.15295 4.17129 -0.580091
5.21675 4.22143 -0.351475
5.25105 4.24767 -0.117773
7.31177 5.90407 1.48839
6.53013 5.26539 0.439344
5.29348 4.26673 0.118558
5.10527 4.10474 -0.804521
5.15971 4.14703 -0.579219
5.22367 4.19693 -0.350952
5.25805 4.22305 -0.117599
7.32462 5.87233 1.48683
6.60694 5.28937 0.443267
5.30054 4.24198 0.118383
5.11181 4.08071 -0.803302
5.16637 4.12278 -0.578348
5.22657 4.16933 -0.350168
5.26494 4.19843 -0.117424
7.33349 5.8375 1.48448
6.68009 5.30977 0.446928
5.30749 4.21723 0.118209
0.964512 0.765834 -0.329908
5.11825 4.05667 -0.802083
5.17292 4.09854 -0.577476
5.23327 4.14486 -0.349645
5.27172 4.17382 -0.11725
7.34219 5.80268 1.48213
6.75346 5.32973 0.450589
5.31432 4.19248 0.118035
5.12458 4.03265 -0.800864
5.17937 4.0743 -0.576604
5.23985 4.1204 -0.349121
5.2784 4.14922 -0.117076
7.35075 5.76787 1.47979
6.82311 5.34616 0.453989
5.32105 4.16774 0.11786
0.977441 0.765036 -0.332496
0.993789 0.777551 -0.291246
5.1308 4.00862 -0.799645
5.18571 4.05006 -0.575733
5.24633 4.09594 -0.348598
5.28497 4.12462 -0.116901
7.35526 5.73003 1.47666
6.89297 5.36217 0.457388
5.32768 4.14301 0.117686
0.961038 0.746802 -0.326027
1.02343 0.794998 -0.299117
5.14084 3.98765 -0.799035
5.19194 4.02583 -0.574861
5.24876 4.06842 -0.347814
5.29143 4.10002 -0.116727
7.3635 5.69526 1.47431
6.96697 5.3808 0.46105
5.33419 4.11827 0.117512
0.952167 0.734592 -0.322146
1.00305 0.773569 -0.29237
5.14293 3.96059 -0.797207
5.19412 3.99857 -0.573553
5.26293 4.05007 -0.347814
5.29779 4.07543 -0.116553
7.37158 5.6605 1.47197
7.02137 5.38379 0.463403
5.3406 4.09355 0.117337
0.950891 0.728327 -0.320852
1.00188 0.767101 -0.291246
5.14096 3.93056 -0.794769
5.21596 3.98646 -0.574425
5.2691 4.02562 -0.347291
5.30403 4.05084 -0.116378
7.39129 5.63473 1.47197
5.3469 4.06882 0.117163
0.945739 0.719157 -0.318264
1.00455 0.7636 -0.291246
1.00822 0.766114 -0.246289
3.65252 2.77242 -0.563164
3.64661 2.76692 -0.400529
3.67193 2.78513 -0.241378
5.31017 4.02626 -0.116204
7.39123 5.594 1.46806
7.36552 5.56645 0.48354
5.35309 4.04411 0.116989
0.944389 0.712941 -0.316971
1.00721 0.760088 -0.291246
1.02656 0.774413 -0.250108
3.64774 2.74977 -0.723469
3.64633 2.7477 -0.560726
3.65226 2.75118 -0.400093
3.66567 2.76028 -0.240332
5.31621 4.00169 -0.11603
7.44229 5.5919 1.47431
7.41286 5.56169 0.48537
5.36318 4.0224 0.116901
0.939142 0.703847 -0.314383
1.00985 0.756567 -0.291246
1.00569 0.753172 -0.24438
3.65192 2.73199 -0.560117
3.66185 2.73841 -0.400093
3.66329 2.73849 -0.239547
5.32214 3.97712 -0.115855
7.46177 5.56588 1.47431
7.48901 5.5801 0.817183
7.49229 5.58051 0.489293
5.36917 3.99768 0.116727
0.929969 0.691915 -0.310502
1.01249 0.753038 -0.291246
1.00043 0.743801 -0.242471
3.69538 2.74343 -0.402708
3.70891 2.75247 -0.241901
5.33197 3.95554 -0.115768
7.48512 5.54274 1.4751
7.50844 5.55393 0.817183
5.42402 4.01064 0.353306
5.37505 3.97297 0.116553
0.924608 0.682926 -0.307914
1.01119 0.746606 -0.290121
1.00697 0.743219 -0.243426
1.02142 0.753335 -0.201007
5.31443 3.91528 -0.345722
5.33769 3.93098 -0.115594
5.38361 3.95755 1.05822
5.3788 3.95257 0.819338
5.34372 3.92392 0.580091
5.32931 3.9119 0.346245
5.38082 3.94827 0.116378
0.919197 0.673983 -0.305327
1.002 0.734431 -0.286748
1.00956 0.739699 -0.243426
1.01608 0.74393 -0.199443
5.30792 3.88196 -0.344414
5.34735 3.90937 -0.115507
5.33589 3.89528 1.28372
5.3575 3.90962 1.0504
5.34045 3.89575 0.811419
5.33726 3.89057 0.577912
5.37118 3.91386 0.348075
5.38649 3.92358 0.116204
0.909829 0.662243 -0.301446
0.980925 0.713731 -0.280001
1.01611 0.739058 -0.24438
1.02666 0.746185 -0.201007
1.02782 0.746755 -0.156028
5.31739 3.86048 -0.344153
5.35287 3.8848 -0.115332
5.38125 3.89967 1.29135
5.39911 3.91117 1.05587
5.40731 3.9128 0.584013
5.3961 3.90182 0.116117
0.908106 0.656393 -0.300152
0.955644 0.6905 -0.272129
1.02253 0.738558 -0.245335
1.03313 0.745667 -0.201789
1.02627 0.740438 -0.155419
1.05037 0.75755 -0.113316
5.32207 3.83698 -0.34363
5.36167 3.86411 -0.115245
5.40089 3.87808 0.115942
0.902544 0.647588 -0.297564
0.930336 0.667284 -0.264258
1.02909 0.737844 -0.246289
1.0277 0.736304 -0.200225
1.02884 0.736852 -0.155419
1.02871 0.736482 -0.110701
5.32731 3.81257 -0.343107
5.36699 3.83955 -0.115071
5.40625 3.8534 0.115768
0.900864 0.641632 -0.296271
0.904878 0.644253 -0.256386
1.03566 0.737093 -0.247244
1.03026 0.732712 -0.200225
1.01928 0.724629 -0.15359
1.03939 0.738658 -0.111573
5.3243 3.78239 -0.342061
5.37628 3.8179 -0.114984
5.41151 3.82872 0.115594
0.899155 0.635695 -0.294977
0.891207 0.629843 -0.251888
1.04223 0.736305 -0.248199
1.02878 0.726263 -0.199443
1.02585 0.723928 -0.1542
1.0501 0.740767 -0.112444
5.33747 3.76378 -0.342061
5.38141 3.79335 -0.114809
5.41666 3.80406 0.115419
0.893462 0.627004 -0.292389
0.885424 0.621132 -0.249639
1.0448 0.732662 -0.248199
1.02727 0.719833 -0.198661
1.02431 0.717495 -0.15359
1.0486 0.73424 -0.112009
5.37512 3.7623 -0.34363
5.38642 3.76881 -0.114635
5.4217 3.77942 0.115245
0.891682 0.621121 -0.291096
0.883588 0.615254 -0.248515
1.04735 0.729012 -0.248199
1.02977 0.716244 -0.198661
1.02681 0.713916 -0.15359
1.05116 0.730576 -0.112009
5.39544 3.74713 -0.114548
5.43075 3.75762 0.115158
0.889872 0.615258 -0.289802
0.881723 0.609396 -0.24739
1.04989 0.725351 -0.248199
1.0282 0.709839 -0.197879
1.02929 0.710327 -0.15359
1.0496 0.724074 -0.111573
5.40025 3.7226 -0.114373
5.43559 3.73298 0.114984
0.888032 0.609415 -0.288508
0.879827 0.603558 -0.246266
1.04837 0.718906 -0.247244
1.03067 0.706245 -0.197879
1.02767 0.703925 -0.152981
1.05213 0.720405 -0.111573
1.09191 0.747366 -0.0693013
5.40496 3.69808 -0.114199
5.44033 3.70836 0.114809
0.890154 0.606312 -0.288508
0.873874 0.595 -0.244017
1.04681 0.712481 -0.246289
1.02905 0.699866 -0.197097
1.03012 0.700334 -0.152981
1.05051 0.713929 -0.111137
1.08625 0.737938 -0.0687782
5.40957 3.67358 -0.114025
5.44081 3.68094 0.114548
0.892265 0.603201 -0.288508
0.871909 0.589218 -0.242892
1.04522 0.706075 -0.245335
1.02739 0.693507 -0.196314
1.02845 0.693958 -0.152371
1.04887 0.707472 -0.110701
1.0764 0.725768 -0.0679937
5.41407 3.64909 -0.11385
5.44948 3.65914 0.11446
0.890355 0.597391 -0.287214
0.869915 0.583457 -0.241768
1.03545 0.694223 -0.242471
1.0257 0.687167 -0.195532
1.02674 0.687602 -0.151762
1.05133 0.703806 -0.110701
1.07893 0.722006 -0.0679937
5.42262 3.62738 -0.113763
5.4539 3.63455 0.114286
0.892434 0.59428 -0.287214
0.863835 0.575018 -0.239519
1.02153 0.679729 -0.238653
1.02398 0.680849 -0.19475
1.025 0.681267 -0.151152
1.04964 0.697376 -0.110265
1.08144 0.718235 -0.0679937
5.43108 3.60567 -0.113676
0.894503 0.591161 -0.287214
0.861772 0.569313 -0.238394
0.995223 0.657226 -0.23197
1.01811 0.67183 -0.193186
1.02323 0.674952 -0.150543
1.0479 0.690966 -0.109829
1.08394 0.714456 -0.0679937
4.51789 2.96544 0.0942359
0.892523 0.585387 -0.285921
0.855605 0.560959 -0.236145
0.956461 0.626845 -0.222424
1.01632 0.665567 -0.192404
1.02143 0.668659 -0.149933
1.05031 0.687304 -0.109829
1.08643 0.710669 -0.0679937
4.52402 2.94692 0.0941488
0.894561 0.582268 -0.285921
0.849391 0.552656 -0.233896
0.942186 0.612799 -0.218606
1.01035 0.656633 -0.19084
1.02376 0.665089 -0.149933
1.04853 0.68092 -0.109394
1.0889 0.706872 -0.0679937
4.24866 2.75595 -0.0883081
4.33276 2.80084 0.0899644
0.892631 0.576365 -0.284627
0.847317 0.546896 -0.232772
0.857819 0.553463 -0.198559
1.00849 0.650425 -0.190057
1.0219 0.658822 -0.149324
1.04683 0.674375 -0.108958
1.09149 0.702876 -0.0679937
4.26246 2.74381 -0.0883952
4.51374 2.89554 0.280866
4.39349 2.81732 0.0910105
0.886505 0.568034 -0.282039
0.841016 0.53868 -0.230523
0.909347 0.582222 -0.210014
1.00671 0.644063 -0.189275
1.02013 0.652399 -0.148714
1.04498 0.668034 -0.108522
1.09393 0.699061 -0.0679937
4.33521 2.76928 -0.0897029
4.52332 2.88056 0.280866
4.52983 2.88249 0.0936257
0.884407 0.562345 -0.280745
0.83878 0.533128 -0.229398
0.919658 0.584309 -0.211923
1.0005 0.635426 -0.187711
1.0181 0.646352 -0.148105
1.04719 0.664565 -0.108522
1.09215 0.692565 -0.0677322
4.41663 2.79964 -0.0911848
4.52912 2.86209 0.280605
4.51823 2.8541 0.0931898
0.882182 0.556831 -0.279452
0.840543 0.530343 -0.229398
0.938196 0.591729 -0.215742
0.998533 0.629297 -0.186929
1.01615 0.64015 -0.147495
1.04529 0.658252 -0.108086
1.09444 0.68894 -0.0677322
4.45974 2.80628 -0.0918822
0.940946 0.590254 0.0971903
4.52817 2.83831 0.0931898
0.880028 0.551184 -0.278158
0.83826 0.524821 -0.228274
0.952737 0.596262 -0.218606
1.00072 0.625807 -0.186929
1.01417 0.633968 -0.146886
1.04758 0.654599 -0.108086
1.09684 0.685115 -0.0677322
4.44831 2.77745 -0.0914463
0.968373 0.602759 0.0998053
1.05564 0.656821 0.065117
4.54654 2.82777 0.0933642
0.886048 0.550659 -0.279452
0.840087 0.521891 -0.228274
0.958982 0.595522 -0.21956
0.998706 0.619706 -0.186147
1.01216 0.627808 -0.146276
1.04562 0.648313 -0.10765
1.09922 0.681282 -0.0677322
4.53872 2.81193 -0.0931027
0.953519 0.588905 0.0980619
1.05368 0.650509 0.0648555
4.55213 2.80926 0.093277
0.896187 0.552632 -0.282039
0.841903 0.518956 -0.228274
0.969412 0.59732 -0.22147
1.00086 0.616216 -0.186147
1.01434 0.624271 -0.146276
1.04788 0.644659 -0.10765
1.09734 0.674825 -0.0674707
4.51018 2.77251 -0.0923181
0.934949 0.573386 0.134627
0.964063 0.590779 0.0989336
1.01762 0.623354 0.0625019
4.55338 2.78813 0.0931027
0.91047 0.557063 -0.285921
0.84371 0.516014 -0.228274
0.975679 0.596492 -0.222424
0.998793 0.610145 -0.185365
1.01228 0.61814 -0.145667
1.04587 0.638403 -0.107214
1.09969 0.670991 -0.0674707
4.27228 2.60577 -0.087262
0.932705 0.56754 0.134018
0.944839 0.574472 0.0967545
1.02832 0.624984 0.0630249
4.56308 2.77222 0.0931027
0.920666 0.558894 -0.288508
0.845506 0.513066 -0.228274
0.981951 0.595629 -0.223379
1.00092 0.606654 -0.185365
1.01443 0.614603 -0.145667
1.04809 0.634748 -0.107214
1.09775 0.664562 -0.0672092
4.26852 2.58307 -0.0870004
0.913437 0.551456 0.130972
0.942574 0.568597 0.0963186
1.00057 0.603342 0.0611943
0.935023 0.563152 -0.292389
0.851465 0.512624 -0.229398
0.984025 0.592197 -0.223379
1.00303 0.603157 -0.185365
1.01657 0.611058 -0.145667
1.04603 0.62852 -0.106779
1.10007 0.660726 -0.0672092
4.27322 2.56558 -0.0869133
0.923872 0.553364 0.132191
0.936005 0.560187 0.095447
0.989812 0.592155 0.0604098
0.945275 0.564839 -0.294977
0.85325 0.509648 -0.229398
0.994514 0.59379 -0.225288
1.00513 0.599652 -0.185365
1.0187 0.607506 -0.145667
1.04822 0.624865 -0.106779
1.10237 0.656882 -0.0672092
4.27356 2.54553 -0.0867389
0.930064 0.552671 0.1328
0.933672 0.554374 0.0950111
0.974697 0.578503 0.0593637
0.951396 0.563999 -0.296271
0.859215 0.509151 -0.230523
0.988135 0.585313 -0.223379
1.00297 0.593625 -0.184582
1.01654 0.601419 -0.145057
1.04611 0.618667 -0.106343
1.10036 0.650489 -0.0669476
4.27812 2.52806 -0.0866517
5.47464 3.22867 1.0066
0.936263 0.551941 0.133409
0.935601 0.551111 0.0950111
0.963803 0.567497 0.0585792
1.01678 0.59845 0.0205732
0.957521 0.563123 -0.297564
0.860987 0.506149 -0.230523
0.947857 0.556994 -0.213833
1.00503 0.59012 -0.184582
1.01863 0.597868 -0.145057
1.04826 0.615012 -0.106343
1.10262 0.646645 -0.0669476
4.28692 2.51311 -0.0866517
5.47812 3.20757 1.46522
5.46442 3.19827 1.23031
5.51998 3.22949 1.01286
0.938184 0.54867 0.133409
0.937519 0.547842 0.0950111
0.961466 0.56161 0.0583177
0.997274 0.582293 0.0201374
0.963653 0.562211 -0.298858
0.866957 0.505594 -0.231647
0.915874 0.533908 -0.206196
1.00708 0.586608 -0.184582
1.02071 0.594308 -0.145057
1.0504 0.611349 -0.106343
1.10055 0.64028 -0.0666861
4.27406 2.48556 -0.0862159
5.48929 3.18843 1.46522
5.47555 3.17918 1.23031
5.56111 3.22756 1.01833
0.940093 0.545392 0.133409
0.943735 0.547064 0.095447
0.959101 0.555748 0.0580562
0.990648 0.573797 0.019963
0.96561 0.558844 -0.298858
0.864499 0.500125 -0.230523
0.883742 0.511052 -0.198559
1.00485 0.580618 -0.1838
1.01848 0.588259 -0.144448
1.05253 0.607678 -0.106343
1.09846 0.633939 -0.0664246
5.51305 3.17655 1.4686
5.50363 3.16984 1.23412
0.941991 0.542106 0.133409
0.945639 0.543766 0.095447
0.961035 0.552396 0.0580562
0.992645 0.570335 0.019963
0.967555 0.55547 -0.298858
0.86624 0.497104 -0.230523
0.864234 0.495753 -0.193786
1.00687 0.577107 -0.1838
1.02053 0.5847 -0.144448
1.05032 0.601525 -0.105907
1.09633 0.62762 -0.0661631
5.52833 3.1597 1.46972
5.53597 3.16279 1.23889
0.939568 0.536355 0.1328
0.947531 0.540462 0.095447
0.962957 0.549038 0.0580562
0.998973 0.569342 0.0200502
0.969488 0.552089 -0.298858
0.863736 0.491668 -0.229398
0.848896 0.483024 -0.189967
1.00459 0.571149 -0.183018
1.01825 0.578683 -0.143839
1.05242 0.597855 -0.105907
1.09417 0.621324 -0.0659016
1.00431 0.570066 -0.0201374
0.949622 0.537927 0.172851
0.941434 0.533072 0.1328
0.949412 0.537152 0.095447
0.964868 0.545674 0.0580562
1.00095 0.565852 0.0200502
0.971409 0.548702 -0.298858
0.865447 0.48865 -0.229398
0.83348 0.470409 -0.186149
1.00657 0.567638 -0.183018
1.02027 0.575125 -0.143839
1.0545 0.594178 -0.105907
1.09198 0.61505 -0.0656401
0.988872 0.556746 -0.0197887
0.942883 0.529771 0.171286
0.938962 0.527352 0.132191
0.951281 0.533834 0.095447
0.966767 0.542302 0.0580562
1.00292 0.562354 0.0200502
0.973318 0.545308 -0.298858
0.862896 0.483245 -0.228274
0.826552 0.462702 -0.18424
1.00855 0.564121 -0.183018
1.02227 0.57156 -0.143839
1.05656 0.590493 -0.105907
1.08977 0.6088 -0.0653786
0.995174 0.555728 -0.0198759
0.901589 0.502436 0.163465
0.940798 0.524071 0.132191
0.953139 0.53051 0.095447
0.968654 0.538924 0.0580562
1.00051 0.55642 0.019963
0.975216 0.541907 -0.298858
0.868837 0.482596 -0.229398
0.823871 0.457431 -0.183285
1.01051 0.560597 -0.183018
1.02426 0.567988 -0.143839
1.05862 0.586801 -0.105907
1.08752 0.602572 -0.065117
0.992831 0.549655 -0.0197887
0.903424 0.499128 0.163465
0.942712 0.52062 0.132191
0.950624 0.524773 0.0950111
0.970529 0.53554 0.0580562
0.99807 0.55051 0.0198759
0.977196 0.538329 -0.298858
0.8706 0.479408 -0.229398
0.829841 0.456775 -0.18424
1.01246 0.557067 -0.183018
1.02188 0.562018 -0.143229
1.06076 0.582918 -0.105907
1.08972 0.598582 -0.065117
0.990361 0.543781 -0.0197015
0.913823 0.500718 0.165029
0.944523 0.517326 0.132191
0.95245 0.521451 0.0950111
0.972485 0.531979 0.0580562
0.995695 0.54445 0.0197887
0.979069 0.534915 -0.298858
0.876544 0.478702 -0.230523
0.840047 0.458579 -0.186149
1.0145 0.553352 -0.183018
1.02394 0.558269 -0.143229
1.05842 0.576828 -0.105471
1.08742 0.592386 -0.0648555
0.992253 0.54032 -0.0197015
0.924243 0.502241 0.166594
0.946324 0.514026 0.132191
0.954265 0.518123 0.0950111
0.974244 0.528751 0.0580562
0.993195 0.538587 0.0197015
0.98093 0.531493 -0.298858
0.886778 0.480279 -0.232772
0.845959 0.457981 -0.187104
1.01198 0.547634 -0.182236
1.02578 0.55487 -0.143229
1.06032 0.573315 -0.105471
1.08948 0.588587 -0.0648555
0.989734 0.534478 -0.0196143
0.930251 0.501517 0.167376
0.948112 0.510719 0.132191
0.956067 0.514789 0.0950111
0.976084 0.525347 0.0580562
0.994975 0.535291 0.0197015
0.982687 0.528237 -0.298858
0.905532 0.486559 -0.23727
0.847473 0.455173 -0.187104
1.01389 0.544098 -0.182236
1.02771 0.551286 -0.143229
1.06232 0.56961 -0.105471
1.09142 0.58497 -0.0648555
0.991594 0.531019 -0.0196143
0.936438 0.500431 0.168158
0.949889 0.507406 0.132191
0.957859 0.511449 0.0950111
0.977912 0.521937 0.0580562
0.992427 0.529461 0.0196143
0.984617 0.524632 -0.298858
0.928809 0.494689 -0.242892
0.853468 0.45437 -0.188058
1.01142 0.538236 -0.181454
1.02963 0.547695 -0.143229
1.0644 0.565713 -0.105471
1.08915 0.578624 -0.064594
0.993442 0.527555 -0.0196143
0.942543 0.499472 0.16894
0.95604 0.506411 0.1328
0.959638 0.508102 0.0950111
0.979818 0.518349 0.0580562
0.99878 0.528157 0.0197015
0.986442 0.521192 -0.298858
0.947762 0.500544 -0.24739
0.855048 0.451388 -0.188058
1.01339 0.534526 -0.181454
1.03163 0.543918 -0.143229
1.06637 0.561994 -0.105471
1.09116 0.574818 -0.064594
0.995277 0.524084 -0.0196143
0.948652 0.498476 0.169722
0.957802 0.503071 0.1328
0.961406 0.50475 0.0950111
0.981532 0.515097 0.0580562
1.00062 0.524668 0.0197015
0.983977 0.515504 -0.297564
0.979715 0.513054 -0.255262
0.860967 0.450677 -0.189013
1.01516 0.531162 -0.181454
1.03343 0.540494 -0.143229
1.06822 0.558454 -0.105471
1.09316 0.571006 -0.064594
0.9971 0.520607 -0.0196143
0.959059 0.499893 0.171286
0.963954 0.502016 0.133409
0.963162 0.50139 0.0950111
0.983324 0.511668 0.0580562
1.00679 0.523654 0.0197887
0.985681 0.512239 -0.297564
0.981411 0.509802 -0.255262
0.862457 0.447819 -0.189013
1.01262 0.525341 -0.180672
1.03531 0.536883 -0.143229
1.07017 0.554722 -0.105471
1.09062 0.565081 -0.0643325
1.00326 0.519596 -0.0197015
0.969572 0.501076 0.172851
0.970022 0.501094 0.134018
0.964906 0.498025 0.0950111
0.985104 0.508232 0.0580562
1.00861 0.520136 0.0197887
0.987463 0.508795 -0.297564
0.961529 0.49522 -0.249639
0.864015 0.444806 -0.189013
1.01445 0.521803 -0.180672
1.03276 0.530996 -0.14262
1.06767 0.548707 -0.105035
1.09258 0.561271 -0.0643325
1.00507 0.516092 -0.0197015
0.97571 0.499941 0.173633
0.976183 0.499968 0.134627
0.966638 0.494654 0.0950111
0.986872 0.504791 0.0580562
1.01487 0.518888 0.0198759
0.989233 0.505345 -0.297564
0.945896 0.482998 -0.245141
0.869934 0.444019 -0.189967
1.01626 0.518259 -0.180672
1.03461 0.527388 -0.14262
1.06958 0.544976 -0.105035
1.09009 0.555187 -0.064071
1.00686 0.51258 -0.0197015
0.973047 0.494296 0.172851
0.982347 0.498804 0.135237
0.972801 0.49353 0.095447
0.993081 0.503601 0.0583177
1.01667 0.515342 0.0198759
0.990991 0.501889 -0.297564
0.925842 0.468691 -0.239519
0.871478 0.440979 -0.189967
1.01807 0.514708 -0.180672
1.03645 0.523774 -0.14262
1.07147 0.54124 -0.105035
1.09202 0.551378 -0.064071
1.00865 0.509062 -0.0197015
0.974766 0.490896 0.172851
0.988515 0.497603 0.135846
0.974518 0.490131 0.095447
0.994833 0.500131 0.0583177
1.02293 0.514035 0.019963
0.992737 0.498426 -0.297564
0.905701 0.45453 -0.233896
0.873012 0.437935 -0.189967
1.01986 0.511151 -0.180672
1.03827 0.520153 -0.14262
1.07335 0.537496 -0.105035
1.09394 0.547563 -0.064071
1.01489 0.507775 -0.0197887
0.9588 0.478667 0.169722
0.994686 0.496366 0.136455
0.980681 0.48895 0.0958828
0.996573 0.496655 0.0583177
1.02472 0.510461 0.019963
0.994471 0.494958 -0.297564
0.894197 0.444856 -0.230523
0.874536 0.434884 -0.189967
1.01721 0.505391 -0.17989
1.04008 0.516525 -0.14262
1.07522 0.533746 -0.105035
1.09584 0.543742 -0.064071
1.01665 0.50423 -0.0197887
0.973743 0.481889 0.172068
1.00086 0.495091 0.137064
0.982381 0.485523 0.0958828
0.9983 0.493174 0.0583177
1.03098 0.509095 0.0200502
0.996278 0.49131 -0.297564
0.891451 0.439422 -0.229398
0.880526 0.433846 -0.190922
1.01906 0.50166 -0.17989
1.04196 0.51271 -0.14262
1.0727 0.527603 -0.104599
1.09783 0.539721 -0.064071
1.02298 0.502705 -0.0198759
0.975503 0.478316 0.172068
1.00713 0.493604 0.137673
0.988628 0.48411 0.0963186
1.00459 0.491707 0.0585792
1.03284 0.505313 0.0200502
0.997987 0.487829 -0.297564
0.89298 0.436307 -0.229398
0.882035 0.430769 -0.190922
1.0208 0.498099 -0.17989
1.04375 0.50907 -0.14262
1.07454 0.523856 -0.104599
1.0997 0.535886 -0.064071
1.02923 0.50132 -0.019963
0.999375 0.485702 0.175979
1.00884 0.490085 0.137673
0.994793 0.482831 0.0967545
1.0063 0.488197 0.0585792
1.0391 0.503885 0.0201374
0.999684 0.484343 -0.297564
0.898882 0.435311 -0.230523
0.883534 0.427688 -0.190922
1.02253 0.494533 -0.17989
1.04552 0.505423 -0.14262
1.07636 0.520101 -0.104599
1.10606 0.534215 -0.0643325
1.03997 0.502071 -0.0201374
1.01502 0.488713 0.138282
0.996472 0.479355 0.0967545
1.01249 0.486845 0.0588407
1.04085 0.500255 0.0201374
1.00572 0.482941 -0.298858
0.900396 0.432171 -0.230523
0.885021 0.424601 -0.190922
1.02425 0.49096 -0.17989
1.0428 0.499626 -0.14201
1.07817 0.516341 -0.104599
1.10792 0.530351 -0.0643325
1.05525 0.504911 -0.0203989
1.01672 0.485168 0.138282
1.00264 0.478018 0.0971903
1.0232 0.487604 0.0593637
1.0471 0.498769 0.0202245
1.0074 0.479428 -0.298858
0.901899 0.429025 -0.230523
0.89093 0.423617 -0.191877
1.02596 0.487382 -0.17989
1.04454 0.495983 -0.14201
1.07547 0.510439 -0.104164
1.10977 0.526481 -0.0643325
1.06604 0.505509 -0.0205732
1.01841 0.481615 0.138282
1.0088 0.476643 0.0976261
1.02941 0.486162 0.0596252
1.04884 0.495111 0.0202245
1.00907 0.475908 -0.298858
0.903391 0.425874 -0.230523
0.892404 0.420504 -0.191877
1.02766 0.483798 -0.17989
1.04626 0.492334 -0.14201
1.07724 0.506682 -0.104164
1.11612 0.524728 -0.064594
1.09042 0.512415 -0.0210091
1.02008 0.478058 0.138282
1.01497 0.475231 0.0980619
1.04015 0.486799 0.0601483
1.05509 0.493565 0.0203117
1.01072 0.472383 -0.298858
0.900458 0.420656 -0.229398
0.898313 0.419463 -0.192831
1.02934 0.480207 -0.17989
1.04797 0.488678 -0.14201
1.079 0.502918 -0.104164
1.11794 0.520829 -0.064594
1.09673 0.510716 -0.0210963
1.05325 0.489126 0.142547
1.01662 0.471685 0.0980619
1.0509 0.487366 0.0606713
1.07041 0.496186 0.0205732
1.01237 0.468852 -0.298858
0.901921 0.41751 -0.229398
0.904226 0.418386 -0.193786
1.03101 0.476612 -0.17989
1.04967 0.485018 -0.14201
1.08075 0.499149 -0.104164
1.11975 0.516923 -0.064594
1.10759 0.511074 -0.0212706
1.06397 0.489596 0.143765
1.02279 0.470214 0.0984978
1.06167 0.487865 0.0611943
1.06305 0.488274 0.0203989
1.014 0.465315 -0.298858
0.898945 0.412328 -0.228274
0.910143 0.417273 -0.194741
1.03267 0.47301 -0.17989
1.05136 0.481351 -0.14201
1.08249 0.495373 -0.104164
1.12155 0.513012 -0.064594
1.10937 0.507205 -0.0212706
1.02434 0.46682 0.0984978
1.07237 0.488481 0.0617174
1.01562 0.461773 -0.298858
0.900378 0.409188 -0.228274
0.916062 0.416123 -0.195695
1.03423 0.469583 -0.17989
1.04843 0.47581 -0.141401
1.08412 0.491781 -0.104164
1.12333 0.509093 -0.064594
4.69497 2.12677 -0.0898772
1.01689 0.459142 0.0976261
1.08772 0.490897 0.0625019
4.67097 2.10706 0.0893541
1.01714 0.458402 -0.298858
0.90173 0.4062 -0.228274
0.917437 0.413083 -0.195695
1.03586 0.46597 -0.17989
1.05009 0.472148 -0.141401
1.08583 0.487994 -0.104164
1.12501 0.505366 -0.064594
4.68869 2.10423 -0.0896157
1.01394 0.453555 0.0971903
1.09855 0.491173 0.0630249
4.68742 2.09482 0.0895285
1.01881 0.454671 -0.298858
0.903213 0.402892 -0.228274
0.923428 0.411716 -0.19665
1.03748 0.462351 -0.17989
1.05173 0.468479 -0.141401
1.08762 0.48401 -0.104164
1.12686 0.501239 -0.064594
4.696 2.08785 -0.0896157
1.11404 0.493207 0.0638095
4.69964 2.07965 0.0896157
1.01598 0.449159 -0.297564
0.904614 0.399737 -0.228274
0.929349 0.410473 -0.197604
1.03917 0.458546 -0.17989
1.05344 0.464622 -0.141401
1.0893 0.480211 -0.104164
1.13317 0.499316 -0.0648555
4.70326 2.07145 -0.0896157
5.68606 2.50074 1.43374
5.67943 2.49664 1.20551
5.66062 2.48719 0.979226
5.69345 2.50044 0.763294
5.63769 2.4736 0.538687
1.1249 0.493327 0.0643325
4.70687 2.06323 0.0896157
1.01754 0.44561 -0.297564
0.906004 0.396577 -0.228274
0.939769 0.411161 -0.199514
1.04076 0.454916 -0.17989
1.05505 0.460942 -0.141401
1.09553 0.478399 -0.104599
1.13491 0.495358 -0.0648555
4.71505 2.05702 -0.0897029
5.67242 2.47115 1.42812
5.66111 2.46504 1.19979
5.67832 2.47136 0.98079
5.72035 2.48847 0.765731
5.66456 2.46185 0.54043
1.12661 0.489397 0.0643325
4.71863 2.04878 0.0897029
1.01023 0.438211 -0.294977
0.911853 0.39535 -0.229398
0.950205 0.411781 -0.201423
1.04235 0.45128 -0.17989
1.05666 0.457256 -0.141401
1.0972 0.474572 -0.104599
1.14121 0.493374 -0.065117
4.7222 2.04054 -0.0897029
5.68996 2.4552 1.43036
5.68771 2.45305 1.2036
5.70052 2.45739 0.983136
5.729 2.46848 0.765731
5.69599 2.45191 0.542609
1.12373 0.483488 0.064071
4.72575 2.0323 0.0897029
1.00288 0.43087 -0.292389
0.913227 0.392164 -0.229398
0.965167 0.414269 -0.204287
1.04392 0.447638 -0.17989
1.05825 0.453565 -0.141401
1.09885 0.470739 -0.104599
1.14293 0.489387 -0.065117
4.72929 2.02405 -0.0897029
5.7209 2.44489 1.43599
5.72783 2.44667 1.21028
5.73177 2.44717 0.987047
5.74671 2.45237 0.766949
5.73201 2.44373 0.545224
4.76805 2.03178 0.271452
4.73282 2.01579 0.0897029
0.995485 0.423584 -0.289802
0.919074 0.390881 -0.230523
0.980158 0.416658 -0.20715
1.04547 0.443992 -0.17989
1.06439 0.451807 -0.14201
1.10048 0.466901 -0.104599
1.14463 0.485395 -0.065117
4.73633 2.00753 -0.0897029
5.74483 2.42907 0.987829
4.76096 2.01013 0.270667
4.73983 1.99926 0.0897029
0.983606 0.41448 -0.285921
0.920432 0.387671 -0.230523
0.995177 0.418947 -0.210014
1.04694 0.440523 -0.17989
1.06588 0.448275 -0.14201
1.10203 0.463249 -0.104599
1.14632 0.481397 -0.065117
4.74331 1.99098 -0.0897029
4.75413 1.98772 0.269883
4.74643 1.98353 0.0897029
0.971604 0.405634 -0.282039
0.926209 0.386493 -0.231647
1.00562 0.419423 -0.211923
1.04847 0.436865 -0.17989
1.06744 0.444552 -0.14201
1.10364 0.459399 -0.104599
1.15252 0.47951 -0.0653786
4.74988 1.97524 -0.0897029
4.76104 1.97111 0.269883
4.75332 1.96695 0.0897029
0.964087 0.39855 -0.279452
0.936558 0.386978 -0.233896
1.01615 0.419657 -0.213833
1.05455 0.435086 -0.180672
1.07357 0.442715 -0.14262
1.10523 0.455544 -0.104599
1.15418 0.475485 -0.0653786
4.75213 1.95675 -0.0896157
4.76789 1.95448 0.269883
4.76016 1.95034 0.0897029
0.952064 0.389693 -0.27557
0.942412 0.385551 -0.235021
1.0267 0.419823 -0.215742
1.05607 0.431402 -0.180672
1.07511 0.438964 -0.14262
1.10682 0.451683 -0.104599
1.15584 0.471453 -0.0653786
4.75927 1.93931 -0.0896157
5.8329 2.37324 1.22363
4.77006 1.93595 0.269621
4.76694 1.93372 0.0897029
0.953485 0.386201 -0.27557
0.948335 0.383922 -0.236145
1.03733 0.419739 -0.217651
1.05757 0.427714 -0.180672
1.07664 0.435209 -0.14262
1.11308 0.449489 -0.105035
1.15756 0.467213 -0.0653786
4.77064 1.92456 -0.0897029
4.77249 1.91659 0.26936
4.774 1.91623 0.0897029
0.954828 0.382871 -0.27557
0.954191 0.382422 -0.23727
1.0479 0.419766 -0.21956
1.05913 0.423835 -0.180672
1.07823 0.43126 -0.14262
1.11464 0.445601 -0.105035
1.15918 0.46317 -0.0653786
4.78695 1.91077 -0.0898772
4.77451 1.89808 0.269098
4.78066 1.89955 0.0897029
0.960714 0.38115 -0.276864
0.960115 0.380718 -0.238394
1.05399 0.417731 -0.220515
1.06519 0.421954 -0.181454
1.07973 0.427494 -0.14262
1.11627 0.441512 -0.105035
1.16551 0.460754 -0.0656401
4.81684 1.90323 -0.0903131
4.82325 1.89701 0.271452
4.78759 1.88202 0.0897029
0.961907 0.378129 -0.276864
0.965841 0.379481 -0.239519
1.06444 0.418005 -0.222424
1.06658 0.418419 -0.181454
1.08114 0.423911 -0.14262
1.11765 0.438003 -0.105035
1.16696 0.45709 -0.0656401
4.91158 1.92186 -0.0919694
4.82454 1.88004 0.27119
4.78882 1.86516 0.0896157
0.967787 0.376352 -0.278158
0.967226 0.375939 -0.239519
1.07054 0.415878 -0.223379
1.06804 0.414693 -0.181454
1.08261 0.420134 -0.14262
1.11925 0.433904 -0.105035
1.16862 0.45281 -0.0656401
4.92292 1.90651 -0.0920566
4.99912 1.92699 0.280605
4.79096 1.84579 0.0895285
0.969095 0.372971 -0.278158
0.968532 0.372561 -0.239519
1.08114 0.415662 -0.225288
1.06955 0.410776 -0.181454
1.08414 0.416164 -0.14262
1.12076 0.429994 -0.105035
1.1702 0.448728 -0.0656401
5.1116 1.95909 -0.0954564
5.07113 1.93445 0.284266
0.970391 0.369586 -0.278158
0.969827 0.369177 -0.239519
1.08717 0.41363 -0.226243
1.07098 0.40704 -0.181454
1.09023 0.414139 -0.143229
1.12225 0.426079 -0.105035
1.17176 0.44464 -0.0656401
5.14646 1.95187 -0.0959794
5.64309 2.1301 0.315909
0.971675 0.366197 -0.278158
0.975669 0.367507 -0.240643
1.0978 0.413292 -0.228152
1.07701 0.405038 -0.182236
1.09167 0.410331 -0.143229
1.12839 0.423911 -0.105471
1.17798 0.442303 -0.0659016
5.76706 2.15507 0.322447
0.977473 0.36449 -0.279452
0.981511 0.3658 -0.241768
1.10843 0.412883 -0.230061
1.07835 0.401464 -0.182236
1.09302 0.406708 -0.143229
1.12979 0.420167 -0.105471
1.17951 0.438188 -0.0659016
5.83952 2.16822 -0.10862
0.978676 0.361247 -0.279452
0.987289 0.36423 -0.242892
1.1144 0.410903 -0.231016
1.08438 0.399404 -0.183018
1.09909 0.404605 -0.143839
1.13125 0.416221 -0.105471
1.18096 0.434274 -0.0659016
5.85137 2.15056 -0.108707
0.984468 0.359485 -0.280745
0.993131 0.362452 -0.244017
1.12044 0.408693 -0.23197
1.09041 0.397307 -0.1838
1.1005 0.400766 -0.143839
1.13738 0.413973 -0.105907
1.18247 0.430149 -0.0659016
5.86354 2.13183 -0.108794
0.990259 0.357687 -0.282039
1.00356 0.362292 -0.246266
1.12186 0.404779 -0.23197
1.09643 0.395173 -0.184582
1.10189 0.396922 -0.143839
1.13882 0.41 -0.105907
1.18396 0.426019 -0.0659016
5.87094 2.11135 -0.108794
0.99605 0.355853 -0.283333
1.01399 0.362063 -0.248515
1.11864 0.399211 -0.231016
1.10246 0.393001 -0.185365
1.10794 0.394739 -0.144448
1.14024 0.406022 -0.105907
1.18544 0.421883 -0.0659016
5.87828 2.09085 -0.108794
1.00184 0.353984 -0.284627
1.03822 0.366633 -0.254137
1.12003 0.395304 -0.231016
1.10848 0.390793 -0.186147
1.10932 0.39087 -0.144448
1.14165 0.40204 -0.105907
1.18691 0.417743 -0.0659016
5.88082 2.06866 -0.108707
1.01219 0.35367 -0.287214
1.06249 0.371038 -0.25976
1.11677 0.389775 -0.230061
1.10984 0.386921 -0.186147
1.11536 0.388628 -0.145057
1.14305 0.398052 -0.105907
1.19779 0.41688 -0.0664246
5.88801 2.04812 -0.108707
